ply
            format ascii 1.0
            element vertex 3357
            property float x
            property float y
            property float z
            property uchar blue
            property uchar green
            property uchar red
            end_header
108.272529 -225.954477 872.014800 171 137 128
107.984719 -155.848728 863.884923 84 59 67
114.902448 -177.409179 864.517286 131 109 120
119.643945 -190.151540 867.475342 203 169 163
117.380960 198.196829 837.757231 140 113 102
114.970925 194.230569 848.070969 64 45 41
129.178904 -271.007383 900.039067 173 133 129
129.178904 -271.007383 900.039067 173 133 129
111.561776 -0.829070 908.834444 115 93 88
112.998273 -0.679903 906.615279 115 93 88
133.602863 -270.045504 903.579142 179 139 133
132.831958 -87.362218 882.171171 127 105 115
137.063545 -269.375230 908.008627 169 130 126
136.520824 -156.917824 892.240815 194 164 159
137.427823 -156.507702 890.795614 194 164 159
136.093426 -60.453653 882.605108 88 62 70
141.688668 -269.013691 912.916481 175 137 132
143.153352 -125.212197 888.485279 110 91 94
135.083947 202.734217 847.988352 64 44 42
139.586072 -18.633056 879.788659 40 27 34
145.389061 -268.164834 916.260860 177 141 138
143.441324 37.218315 878.763261 149 126 130
143.237765 205.565375 849.465998 62 46 49
143.344962 205.525819 849.302970 62 46 49
143.848814 197.792315 852.115407 69 53 58
150.768632 -139.759079 906.390283 172 137 131
152.581431 -128.662600 906.969978 211 178 167
148.135457 204.295521 857.084603 62 44 41
156.208553 -63.656035 893.938989 114 98 96
154.907048 164.305890 866.913132 113 89 93
154.471379 135.529193 876.605427 138 125 113
163.557175 27.658301 900.549867 182 150 143
167.170178 -44.840112 911.701208 29 24 25
167.170178 -44.840112 911.701208 29 24 25
175.827519 -46.954830 920.893900 197 164 155
179.538106 -135.017868 935.202329 172 135 127
180.011225 166.000405 892.165168 108 88 86
184.675016 115.435711 913.365945 82 49 36
187.791419 109.326575 916.988627 165 119 115
187.791419 109.326575 916.988627 165 119 115
196.491892 141.797913 919.461255 115 103 102
214.074210 -246.679823 983.960752 160 143 146
204.965536 146.215331 923.757018 59 50 45
206.269292 151.608986 923.450781 141 115 104
213.297252 -80.521078 974.334641 201 169 162
208.472247 137.032265 936.172195 201 169 156
219.810059 -14.235072 960.816357 163 128 125
227.958726 54.710559 963.438646 177 142 131
231.792720 -50.553881 982.266015 175 143 129
235.749512 137.566851 917.793178 95 68 59
239.719763 -129.781822 999.751169 193 162 152
230.088780 95.844534 974.537617 193 161 151
233.862412 147.160978 946.245869 65 56 50
244.582586 -71.293501 986.380524 102 79 74
241.268223 -21.608015 988.463738 179 142 128
244.357489 -28.560447 991.178175 63 47 42
248.340525 -64.661294 991.555379 36 27 27
242.425523 199.362192 953.461775 58 43 46
255.881772 -203.491750 1023.583751 166 127 121
244.247694 23.667741 1006.552417 117 91 87
255.378324 -140.881048 1012.527911 67 48 42
247.065951 64.402298 985.471304 199 165 159
256.000157 -159.890882 1019.385316 117 80 65
258.455937 -186.427443 1024.470068 177 137 126
247.064711 126.084620 977.195962 194 165 163
255.385483 -62.708688 1001.426397 125 104 111
250.201614 128.511767 977.915563 101 82 100
252.248539 138.202374 980.672651 151 128 136
261.179506 -71.770462 1016.800169 69 53 70
258.421646 39.720599 1001.280632 52 38 36
255.414246 185.688664 967.918220 127 99 97
258.938992 65.156175 1000.763445 119 100 117
258.354114 120.644166 988.368299 142 122 131
262.937745 21.265467 999.608002 72 53 47
265.623505 -65.579008 1018.031035 78 54 67
267.461774 -98.253042 1023.971478 86 61 79
266.540774 -87.098835 1026.123667 171 149 153
265.160976 -41.523928 1017.832323 120 100 107
264.696191 -17.173711 1011.851431 77 54 67
262.727097 40.388965 1002.316395 132 110 115
263.070763 24.541976 1007.890392 156 132 132
265.907298 -36.620328 1025.212527 121 99 113
268.281733 -42.028166 1023.831615 67 49 61
265.518625 118.897037 996.234834 165 145 144
279.655568 -173.357748 1041.529502 154 127 127
273.796136 -45.108185 1036.044198 39 32 41
282.450576 -179.282359 1044.201471 77 56 59
281.977186 199.216940 904.012626 71 47 42
287.590374 -223.349198 1060.551085 214 179 171
288.334577 -222.670575 1058.326940 214 179 171
285.433784 200.629798 903.607728 154 119 109
280.961837 185.345707 952.699584 78 54 44
290.417746 -164.479912 1054.915838 52 36 43
285.465039 195.520442 934.415076 156 120 108
293.432727 -182.492839 1060.050670 105 77 91
295.758807 -170.754535 1061.735487 136 110 127
302.307313 -193.462447 1070.539490 98 69 80
305.941584 -212.142466 1069.625251 77 57 52
304.810224 210.809962 890.794321 101 72 66
286.299868 -56.663208 1192.679915 111 81 84
312.240172 -218.097220 1077.596569 67 48 48
290.632887 -45.686976 1177.047097 52 38 40
300.054053 -134.919633 1175.214060 73 56 64
293.923041 -46.371207 1180.007516 103 82 80
314.640270 -191.879868 1089.268276 157 136 137
315.075351 -186.587827 1089.788993 157 135 143
319.048347 -223.572836 1085.204248 68 49 49
319.048347 -223.572836 1085.204248 68 49 49
296.600453 -44.791556 1182.887243 47 32 35
323.367299 -268.833921 1102.641778 168 129 117
303.452822 -96.973684 1193.062389 104 70 69
321.755802 -196.492289 1093.485761 167 146 143
322.604902 -197.652149 1093.297490 145 116 124
312.640724 195.831721 962.668590 103 70 61
326.239860 -228.517005 1093.261141 64 45 40
323.587102 -192.649097 1097.046852 152 130 134
247.280872 390.804377 1573.210869 118 80 79
330.659774 -206.021902 1105.413003 132 107 116
331.581485 -202.733272 1113.749759 66 48 59
322.803306 206.913736 944.578881 105 74 66
319.799200 197.078614 999.005428 102 72 68
337.775187 -235.219810 1112.020057 66 57 59
340.675692 -211.707788 1115.872578 134 108 124
344.471543 -241.233889 1111.424079 143 118 125
343.933789 -223.012832 1118.047526 85 57 64
326.691598 -89.705638 1221.713512 45 31 29
324.763875 -41.685086 1212.141015 114 91 94
326.798130 -80.176620 1219.660470 44 28 30
344.031302 -210.708988 1123.228356 101 76 87
344.031302 -210.708988 1123.228356 101 76 87
332.955973 201.481533 984.845342 97 68 59
351.409781 -249.357194 1128.546937 119 88 72
354.360519 -301.151765 1143.259688 114 82 69
332.084340 -35.356222 1221.050007 116 89 93
357.637392 -277.824658 1141.039233 52 32 27
355.422254 -226.691338 1131.304769 82 55 67
337.638745 -41.962175 1221.641255 73 49 56
359.584797 -297.187164 1146.560478 198 170 158
357.727411 -254.520187 1136.775447 175 143 131
357.200796 -205.654007 1146.777937 125 101 118
342.491659 -40.229661 1226.418082 65 43 47
362.286061 -255.306071 1141.557269 147 121 114
366.207868 -297.558676 1151.216969 131 99 98
352.036772 -131.339247 1226.887693 46 37 39
349.057213 211.635111 968.863011 111 75 68
349.144147 215.917230 968.095764 95 64 60
367.753286 -228.516721 1144.320131 89 61 65
367.618732 -225.539629 1144.015128 134 103 108
369.777277 -244.922068 1138.569324 170 142 131
369.614672 -212.576500 1153.049087 38 30 33
357.416635 -75.066417 1251.672412 44 30 31
360.349918 220.251571 951.453232 101 74 65
383.809071 -267.215857 1160.453227 138 110 97
380.671841 -211.773091 1165.518966 38 31 34
363.232932 210.759308 983.857307 119 84 73
374.628157 -141.304243 1221.380953 141 112 108
387.489709 -303.934881 1169.120818 123 90 78
387.489709 -303.934881 1169.120818 123 90 78
387.996662 -313.553337 1171.735206 146 115 99
387.918399 -291.991549 1165.770725 182 158 141
379.146963 -92.892226 1169.605128 49 37 39
371.077342 -8.560919 1256.847601 110 84 84
387.828075 -214.289108 1172.616962 107 80 95
386.597366 -176.091849 1201.180152 28 22 23
371.555924 213.032699 991.854057 93 65 57
371.971733 212.640588 990.269981 93 65 57
369.097634 110.964852 1239.248623 103 79 80
396.648598 -267.534828 1176.186519 165 139 132
396.648598 -267.534828 1176.186519 165 139 132
391.713663 -186.354542 1190.936129 115 90 95
375.266909 208.845358 993.269584 171 131 119
399.174214 -249.951353 1175.843968 160 130 124
399.512433 -225.992829 1174.856285 160 130 129
404.395829 -305.939810 1198.821309 216 185 174
402.288917 -214.502922 1180.405604 49 35 38
407.092287 -245.258920 1183.319056 91 61 54
384.342859 149.791378 1227.613299 110 88 93
411.147355 -272.438842 1194.225993 189 163 149
410.696059 -246.708910 1188.920658 180 153 148
410.696059 -246.708910 1188.920658 180 153 148
386.769328 133.779235 1230.986651 109 81 91
412.897785 -267.196547 1201.112369 102 79 74
413.811330 -273.880973 1202.690596 100 69 62
410.902989 -215.702789 1186.240269 132 107 120
413.791393 -234.630200 1186.044368 177 150 134
389.717828 206.784994 1069.904543 104 80 71
391.789189 215.549080 1008.960507 95 70 62
415.870205 -217.713021 1193.405453 75 51 61
419.241313 -270.068226 1206.526177 119 89 81
418.061124 -237.567714 1192.558358 116 85 72
419.264735 -247.925392 1200.912298 83 52 41
420.608560 -204.539354 1194.984049 118 94 102
400.020432 147.513086 1229.932951 48 35 43
410.321936 -15.618372 1238.257310 44 31 33
400.471335 150.310880 1224.397276 86 69 77
425.744731 -223.125510 1200.558309 36 26 27
428.520928 -226.658149 1200.967320 143 115 104
427.598013 -210.952286 1205.007409 74 48 56
422.226643 -120.473961 1243.281081 84 63 68
433.049323 -245.650696 1205.219320 58 37 36
412.970391 138.436110 1230.359475 150 120 109
414.578237 154.536129 1218.581513 96 73 86
421.153161 53.585696 1244.338512 65 42 52
439.109522 -230.590528 1207.895681 141 118 121
415.570059 164.225566 1216.208738 100 75 95
444.908574 -307.450533 1226.526156 204 173 163
442.060476 -219.174066 1211.745985 38 26 24
424.519369 143.509521 1230.974780 96 75 77
425.027255 150.913266 1224.909282 79 65 77
448.789130 -223.431933 1218.826643 101 77 65
446.325413 -128.658910 1242.353037 129 98 91
439.774058 15.093431 1248.304229 153 123 111
452.327373 -115.573701 1248.862972 100 76 86
433.755535 166.298991 1051.627053 61 43 46
459.327885 -160.236852 1237.734434 117 90 93
456.507856 7.783537 1250.979128 47 33 36
467.782757 -179.690080 1241.191201 122 94 104
449.061802 142.758827 1231.423170 106 85 81
452.496903 148.659461 1229.483621 31 19 24
470.663515 -111.461043 1252.936376 137 114 114
470.663515 -111.461043 1252.936376 137 114 114
442.061698 230.541764 1031.255704 105 76 71
463.966123 15.212111 1248.978098 161 127 113
445.146159 223.395871 1066.604239 115 82 72
445.146159 223.395871 1066.604239 115 82 72
474.010522 -133.374423 1249.248830 102 77 81
474.389445 -142.112242 1245.595625 110 87 92
462.191105 129.879778 1231.386926 154 122 108
477.139184 -86.464533 1255.751087 141 118 117
477.139184 -86.464533 1255.751087 141 118 117
480.580449 -127.971801 1250.530910 113 89 95
480.367730 -108.518497 1253.707982 59 44 50
461.596191 179.635195 1210.788383 111 94 98
474.819398 -3.252002 1249.453672 55 41 43
450.947454 231.280095 1041.711779 106 77 69
476.471613 -14.376493 1245.769740 28 19 24
468.861498 112.885475 1236.217487 63 42 41
467.874539 139.686607 1233.071152 57 32 29
488.579105 -125.567378 1258.337016 76 51 59
482.568110 -8.124288 1250.897672 128 100 102
482.576857 1.972376 1249.779817 137 116 119
481.625462 17.758689 1247.016184 109 86 96
481.512820 39.221924 1243.508250 110 84 97
485.066856 -20.120868 1237.834740 108 84 90
485.066856 -20.120868 1237.834740 108 84 90
490.931632 -96.577389 1257.047436 122 95 100
480.706130 65.266598 1239.031921 129 107 108
480.706130 65.266598 1239.031921 129 107 108
492.923829 -89.313551 1260.696754 35 23 27
476.225276 193.889043 1207.721680 65 46 51
495.803438 -72.743294 1262.105779 37 23 27
495.803438 -72.743294 1262.105779 37 23 27
495.803438 -72.743294 1262.105779 37 23 27
494.670193 -12.712186 1253.025352 37 24 26
486.639766 155.500073 1225.286735 34 22 22
486.398382 161.856882 1221.637547 44 32 38
497.046669 40.548631 1248.705164 42 29 36
495.913523 64.765168 1240.327081 126 104 104
496.151655 73.523675 1244.411950 44 28 34
496.151655 73.523675 1244.411950 44 28 34
499.968486 97.633807 1244.876673 122 95 102
512.429835 -141.547815 1275.372560 198 162 149
491.607278 153.474040 1223.973914 106 86 91
498.791316 80.001385 1236.225391 123 99 110
501.259192 67.916787 1242.598424 37 27 31
515.936198 -123.870606 1278.705605 190 160 142
494.278975 177.042355 1219.310623 119 101 118
500.833729 128.207940 1232.454781 86 58 54
509.578336 136.055896 1240.261070 90 53 52
514.431382 82.520532 1257.444076 197 166 152
514.042674 105.128071 1251.413194 207 175 166
512.316731 126.448994 1243.112726 121 71 62
520.850386 29.592005 1268.975550 217 180 166
525.556470 -19.285120 1278.110254 49 35 33
514.969079 120.374118 1247.637214 255 239 236
514.969079 120.374118 1247.637214 255 239 236
514.541209 133.444068 1244.314870 254 237 233
518.422742 113.299474 1255.084595 128 101 103
533.445958 -36.510483 1292.215458 213 175 164
526.222808 67.173886 1264.372571 206 174 162
530.130018 248.459892 1122.602262 61 79 51
577.092536 -91.294171 1344.916781 171 140 129
577.092536 -91.294171 1344.916781 171 140 129
594.876899 -252.530910 1392.091304 208 173 163
536.731875 243.770525 1129.230958 103 76 65
605.669082 -331.523420 1407.234795 231 192 177
604.829984 -276.021815 1400.297842 205 172 159
568.738937 189.068539 1299.585640 190 159 150
587.121530 42.449927 1338.422284 205 174 158
581.805982 144.553003 1318.818091 199 169 158
623.338718 -312.908583 1418.935254 147 119 129
595.021446 94.315475 1349.122214 202 168 158
597.953892 51.200244 1348.562437 175 137 123
597.046153 125.537172 1333.887507 125 100 118
597.129637 154.510719 1331.993666 116 96 114
588.965645 232.159380 1302.828816 136 113 106
633.874492 -249.126812 1417.908918 99 81 81
638.014181 -236.808519 1423.236500 186 153 140
649.253219 -283.395691 1473.385209 50 30 40
642.302954 -248.282811 1428.188448 106 86 82
612.090228 87.916672 1355.160522 149 126 114
612.090228 87.916672 1355.160522 149 126 114
633.632613 -128.770766 1413.349540 147 116 113
601.847345 259.314657 1314.120578 55 35 37
630.813089 -0.643609 1387.695396 120 98 104
631.907638 -7.616760 1388.696440 147 125 122
631.907638 -7.616760 1388.696440 147 125 122
633.562872 -4.830276 1386.683368 38 20 30
634.345214 -9.839676 1389.030968 32 16 27
608.213590 263.151801 1320.142669 65 44 47
617.116517 236.137460 1332.285045 121 99 81
656.455783 -122.804482 1432.896333 190 157 143
679.743155 49.992707 1618.130705 97 81 76
665.895848 -209.167831 1454.384424 148 107 105
665.895848 -209.167831 1454.384424 148 107 105
619.672497 251.846349 1333.890358 149 131 122
679.043584 100.498928 1610.013040 88 71 80
624.597480 235.289654 1341.663621 69 51 45
622.074862 256.894851 1333.523557 143 128 121
622.615409 254.257893 1334.601986 93 69 68
622.057201 260.256431 1332.693408 89 66 70
681.557792 56.228271 1604.171554 95 77 85
679.107205 130.885686 1607.187434 99 78 85
678.518064 173.233011 1600.624393 95 73 78
689.182730 50.721273 1619.955882 41 28 31
677.086324 -226.937316 1466.272566 159 126 116
676.330616 194.118763 1590.955303 105 85 81
667.487749 -112.133990 1436.708709 94 64 58
741.976335 -304.106326 1788.190355 94 84 73
671.792760 -125.735563 1445.766652 99 63 68
676.355843 231.919058 1576.957801 114 93 91
696.530385 36.435811 1626.140596 112 96 94
747.371196 -303.385765 1793.296874 40 24 20
-21.366515 -303.524247 737.960454 186 157 150
-106.292455 -53.745588 805.550726 24 19 22
-19.583615 -292.967631 737.935872 136 109 113
-17.681453 -294.344045 738.745995 140 109 106
-112.119610 -20.770008 820.357134 28 16 9
-104.706915 -46.799223 816.066287 30 21 21
-101.303317 -52.304158 818.529083 23 17 19
-112.492867 107.886102 837.084755 86 73 68
12.870178 -199.251266 758.882560 70 52 52
16.847044 -277.907654 779.049351 183 148 135
25.204191 -296.541420 782.390493 185 154 143
30.947406 -293.135048 787.094439 67 47 48
27.878789 -314.701603 791.992628 114 89 97
27.878789 -314.701603 791.992628 114 89 97
34.965028 -195.482724 778.374917 81 69 85
36.438811 -222.526707 791.223510 60 45 51
35.684645 -238.350004 794.055785 54 40 43
40.925129 -285.888449 798.697193 17 17 17
54.164200 -300.703592 807.267173 17 18 18
55.439831 -328.171969 820.876406 169 140 135
-42.669857 31.965001 913.965653 44 23 14
62.990853 -283.009995 820.439668 51 38 44
62.180014 -277.733404 819.925810 48 34 39
62.917205 -289.129082 819.953924 123 107 127
62.172939 -272.966608 821.907919 100 87 103
65.208998 -262.870871 819.843897 103 82 94
65.223806 -286.407869 821.694526 71 53 65
64.344858 -282.590044 822.650496 67 50 58
62.685009 -290.574458 826.352038 116 95 111
64.833531 -278.646353 823.311229 102 84 100
67.294157 -284.076361 824.930742 58 40 48
67.173066 -270.800432 826.753102 46 35 37
67.173066 -270.800432 826.753102 46 35 37
70.729152 -271.341500 827.410701 94 80 92
71.847976 -217.053468 822.473735 103 88 104
71.847976 -217.053468 822.473735 103 88 104
73.670780 -219.778352 823.642443 63 51 56
73.738103 -211.628391 825.047801 109 95 120
69.544735 -265.742554 833.875604 117 99 112
69.544735 -265.742554 833.875604 117 99 112
73.086357 -270.024403 830.570805 104 88 98
73.887929 -272.049345 832.246595 66 50 61
72.108341 -268.461381 834.453778 34 24 28
75.271590 -246.018801 831.609289 35 22 26
76.195254 -334.876649 837.622265 93 83 91
79.344773 -318.292101 846.365903 94 58 54
81.288699 -323.248503 847.965212 160 131 127
84.472543 -333.730686 846.384015 91 80 84
87.218609 -332.964336 847.541891 91 79 80
87.218609 -332.964336 847.541891 91 79 80
88.120174 -299.238076 844.465646 121 100 99
85.949262 -278.295401 846.125785 16 16 15
85.736336 -317.754503 852.543174 174 143 141
86.598443 -312.594119 851.419546 177 147 144
90.775076 -303.791405 847.090532 88 72 75
91.601679 -231.118971 842.115855 125 106 113
89.277466 -329.301599 852.677860 78 66 80
89.277465 -329.301599 852.677860 78 66 80
91.691704 -282.846070 846.202057 99 82 89
92.613488 -332.842420 855.428570 75 68 77
93.539487 193.213446 814.412466 153 123 104
95.499896 -283.804540 848.649129 60 46 48
95.499896 -283.804540 848.649129 60 46 48
95.372826 -331.801202 856.020160 78 71 75
94.544661 -205.654442 848.856007 77 67 77
96.502011 -188.881097 845.127709 25 19 21
92.657770 -289.980081 861.009369 106 84 92
97.667997 -204.044939 854.619146 179 145 139
97.667997 -204.044939 854.619146 179 145 139
99.944328 -275.282001 863.650525 109 87 105
101.666519 -163.888252 854.638042 81 56 61
104.831564 -262.783868 866.559182 182 154 150
108.453496 -330.325654 871.987536 71 65 75
105.129627 -301.951979 882.779135 171 138 130
116.165443 -180.960485 868.627700 62 72 72
119.621241 -327.844181 880.311685 76 66 74
119.041594 -324.785068 883.904853 88 76 92
121.483847 204.885847 840.143532 132 111 99
124.634404 -327.682932 887.871206 68 60 69
125.223856 -325.567347 889.732475 36 25 27
118.113083 -249.923482 896.477011 173 141 137
130.355788 -327.058523 892.632400 19 14 16
129.081214 -114.326267 879.392159 93 66 73
139.221717 -126.668798 884.133517 46 34 35
137.531846 -219.989485 897.204316 129 100 94
124.769749 -353.665964 931.520962 24 14 15
137.864571 -312.490127 907.351475 183 149 143
140.258589 -325.840477 904.430951 73 62 69
140.258589 -325.840477 904.430951 73 62 69
138.049675 -71.239202 884.525235 138 119 117
138.431135 -61.188052 883.356592 119 100 108
141.783863 -139.179246 893.399788 83 65 60
143.809479 -321.243671 909.974989 117 95 102
142.793630 -71.569733 888.442323 118 97 99
147.444842 176.853351 859.506804 68 50 44
145.421191 -20.116634 883.354818 92 75 84
148.979237 -324.043497 912.690671 77 64 67
149.698524 177.336160 860.989248 99 82 75
145.977383 -340.601680 921.832000 63 47 56
176.139039 -301.608949 870.761321 41 29 33
151.620475 -320.613808 918.664480 97 82 88
153.192064 -69.677305 892.696949 117 98 94
153.736243 -324.831598 921.691422 30 25 24
155.902415 -277.178414 923.999144 152 113 109
162.592999 -51.200012 905.248484 48 41 38
163.283834 28.193332 900.938473 161 130 125
164.494507 -19.383898 906.776749 175 143 131
164.822010 -36.056195 908.205422 164 130 116
165.159799 -10.786281 905.810185 173 136 123
165.368683 -3.752158 907.801422 92 74 91
170.851112 93.876690 900.952506 173 137 129
175.838397 38.641850 902.697439 185 150 139
177.064217 139.252181 904.431203 108 100 90
178.545859 115.115058 908.488465 68 37 27
182.457305 -261.635221 950.040661 156 120 112
179.863621 127.129565 909.526587 124 84 100
185.727395 -287.755117 954.748938 163 129 119
186.917453 211.073464 894.900799 61 46 44
184.155237 115.821656 914.403948 67 36 28
187.276034 109.785867 918.274854 147 102 101
188.280044 134.357079 918.070309 179 148 135
205.002324 -164.663703 962.599579 163 124 114
205.767150 133.315750 934.829741 170 137 132
215.631302 -189.645383 976.756178 214 176 163
221.536009 -283.995433 992.334802 167 128 121
221.536009 -283.995433 992.334802 167 128 121
225.344112 -362.580513 1004.172601 133 99 97
222.157007 2.707875 964.293795 142 109 96
228.449716 -294.878561 999.421654 176 136 133
228.204289 -115.072815 980.508591 185 152 148
232.218201 -292.377761 1003.956501 164 126 121
232.218201 -292.377761 1003.956501 164 126 121
233.740391 11.431255 976.404165 172 137 131
236.220284 -38.404819 984.540537 153 119 108
243.235732 141.688829 945.428956 93 56 42
240.911380 -68.225204 989.866238 91 73 70
243.461958 8.455297 984.912610 59 36 31
244.177630 -15.146177 987.751063 111 81 71
241.811650 110.123057 975.349065 57 42 41
244.427649 151.424062 968.704228 61 49 49
247.155099 141.124592 970.254784 166 134 124
247.273917 43.243917 987.619451 182 148 137
247.273917 43.243917 987.619451 182 148 137
247.234372 43.233417 987.676428 182 148 137
247.234372 43.233417 987.676428 182 148 137
254.133015 -101.972060 997.779677 116 93 100
251.728665 -63.153988 996.434391 29 24 22
248.930572 2.977226 991.729455 149 118 109
252.394648 -62.762030 995.212856 29 24 22
247.019849 64.648857 985.562763 179 147 136
245.602849 131.066019 978.747223 179 143 131
247.727778 137.342724 974.554108 176 141 127
256.486454 -171.794483 1009.699706 201 166 153
256.439957 27.671803 993.888742 128 101 93
256.439957 27.671803 993.888742 128 101 93
256.439957 27.671803 993.888742 128 101 93
269.015221 -359.441841 1048.394517 169 133 123
263.929443 -115.879088 1021.196860 144 125 127
259.667623 87.640610 992.909439 75 52 47
270.778135 -361.222038 1052.860274 167 130 119
271.057039 -360.958417 1052.350441 167 130 119
262.760357 40.611484 1002.183634 114 93 100
266.321163 -104.945526 1024.140463 134 112 122
263.759060 33.646329 1003.469205 66 49 52
262.296484 58.685236 1003.554052 129 107 120
263.157821 47.121216 1004.332359 58 43 54
280.315154 192.488996 937.698756 57 38 32
270.675984 -114.301510 1028.073715 77 54 65
273.035900 -122.047631 1031.224089 60 46 57
273.035900 -122.047631 1031.224089 60 46 57
277.702356 -136.926474 1037.402451 46 33 37
271.936651 -43.503635 1037.093374 38 29 34
279.423744 -140.625304 1038.487184 109 86 100
282.722572 -228.358501 1049.786275 141 112 115
270.943303 -59.775087 1049.815255 135 109 112
271.371605 -57.172468 1052.893473 139 116 120
283.528820 -151.169596 1044.923876 42 33 37
260.828701 86.752770 1065.682276 167 150 152
286.336830 -158.038512 1048.550600 74 52 63
285.604299 -142.927167 1061.366478 160 139 138
284.885404 -138.837688 1063.488341 71 56 65
293.817780 -182.105561 1058.787496 87 62 75
294.055486 -218.353014 1070.768869 93 73 71
290.511338 -153.396036 1075.380424 68 53 56
302.217391 -234.593862 1069.021802 176 139 132
303.716084 -207.789342 1063.089798 59 41 40
272.793838 -96.949999 1134.172001 75 62 71
302.894389 -192.928035 1068.611921 88 64 71
311.411925 196.740664 966.276633 92 62 57
285.708784 -120.601867 1121.736560 139 112 124
307.818835 -189.563205 1071.658608 116 94 107
311.468473 203.986684 965.262897 93 62 54
308.809523 -269.056423 1088.468452 198 164 155
303.079798 -173.413351 1083.035043 131 106 117
313.618159 -234.344185 1078.515764 95 73 63
274.384590 -49.289376 1159.247595 90 71 71
312.417165 -202.435070 1079.561135 75 52 61
306.383856 -166.852969 1098.086834 120 94 104
293.783084 -133.738422 1132.021687 148 123 120
294.573216 -144.015042 1132.201591 68 55 59
294.573216 -144.015042 1132.201591 68 55 59
332.652216 221.475882 926.593820 77 50 42
281.871178 -46.487107 1167.734130 29 22 23
325.510103 -339.547167 1108.569800 184 147 135
286.086067 -49.747442 1168.013271 112 86 84
322.779105 -210.984722 1091.500835 71 48 61
285.638338 -258.560653 1232.916087 108 87 106
330.435302 -358.562232 1112.531220 187 151 143
303.846410 -143.849348 1144.727734 133 109 114
330.809194 -342.042934 1113.366463 181 144 129
289.677572 -258.801834 1242.263813 72 51 58
332.757049 -325.799140 1114.692307 171 130 118
335.011283 -239.704470 1098.767000 89 70 63
338.835411 -333.933929 1116.051805 60 38 33
338.672087 -305.446905 1112.799628 66 44 39
336.991298 -250.284459 1105.608319 50 35 30
344.600624 -371.803904 1127.806735 180 144 136
337.357702 -205.165962 1110.532716 51 42 50
343.589537 -249.685997 1105.750114 129 105 112
344.959199 -334.431154 1127.019088 118 93 98
348.708246 -349.702550 1121.910944 122 100 101
301.750919 29.814557 1179.473506 255 190 172
301.396310 43.032748 1177.717017 255 190 173
301.276636 48.958915 1177.842233 66 40 31
348.623998 -369.411388 1133.211781 174 133 121
350.242493 -379.229589 1136.632788 171 136 122
351.652771 -349.859999 1124.343047 35 25 24
347.023937 -239.692943 1109.498351 136 113 118
345.443873 -209.407314 1118.359309 89 66 76
352.688821 -340.722798 1131.538634 23 20 21
348.791616 -248.052146 1119.564386 62 42 41
349.205141 -286.720666 1131.340253 138 115 110
349.205141 -286.720666 1131.340253 138 115 110
349.543134 -271.905426 1129.146775 94 71 70
349.725020 -261.484411 1126.429883 139 114 110
350.550808 -250.200287 1122.832245 143 118 111
351.746606 -243.827861 1116.936382 157 135 127
351.137961 -264.785242 1128.316189 83 59 58
349.925910 -218.306166 1121.053542 72 51 58
352.675415 -276.324042 1130.652823 161 136 132
351.059426 -225.904767 1121.715701 114 88 101
350.864066 -214.935612 1120.773742 117 92 89
353.959218 -236.662995 1118.599778 109 88 73
361.685526 -373.653797 1136.173566 123 100 105
354.580594 -270.092177 1130.794013 113 84 79
356.531784 -251.547124 1122.774667 165 141 136
353.294470 -214.000390 1124.616034 104 83 92
355.881795 -260.174929 1130.512755 48 33 30
354.752522 -218.925800 1127.018810 109 87 101
357.435363 -264.605180 1132.237376 165 139 128
359.924701 -306.766469 1139.216544 188 159 146
371.897184 -196.993476 1065.319268 29 20 22
359.308109 -267.818250 1136.958619 81 58 50
360.772878 -312.704861 1146.175814 115 86 82
359.366817 -220.126517 1131.009398 103 82 94
361.949064 -241.843252 1128.244238 124 102 86
362.405716 -260.657682 1136.640527 135 111 98
331.331610 -118.628998 1214.770260 96 74 78
327.405548 -40.000612 1213.920353 36 26 28
330.651331 -52.042256 1218.287940 125 97 107
392.928231 -182.379765 1016.269905 108 89 107
364.455606 -214.294964 1143.073733 107 90 92
332.196381 -43.069179 1215.783635 67 45 50
371.694574 -328.797733 1159.533769 116 86 82
365.141420 -210.998336 1146.610292 29 25 27
368.350627 -218.826591 1141.660500 33 21 24
374.372337 -340.206950 1162.646304 156 133 127
374.418838 -326.875138 1160.265443 170 144 139
374.365510 -331.002038 1162.214440 117 91 86
335.927900 -40.360933 1222.875856 97 80 82
376.149144 -360.766772 1168.599095 97 75 70
377.250575 -346.803587 1166.703850 121 114 118
377.906195 -340.193908 1166.975200 145 124 115
380.196545 -315.694497 1159.033318 177 146 137
375.682164 -217.438336 1147.080778 112 87 94
383.215187 -353.483952 1168.913277 104 83 78
346.097396 -93.564901 1240.438479 17 12 12
388.858291 -352.767100 1171.070882 93 67 64
374.547768 205.600100 1030.403688 96 65 60
388.691976 -301.870422 1163.196788 110 82 74
389.680003 -338.945905 1173.686916 173 149 144
389.186511 -311.589592 1165.893481 132 103 94
388.050894 -329.457711 1179.419945 151 130 126
388.840865 -285.589596 1161.639392 117 85 84
390.301404 -303.673262 1163.560031 153 126 118
391.210707 -340.640395 1174.454049 121 98 99
392.674066 -352.113300 1174.527412 102 81 81
391.150267 -289.213764 1162.323394 169 143 135
392.767426 -346.627583 1177.164082 167 148 141
392.278139 -339.642581 1178.946109 168 149 145
391.412782 -329.249207 1180.422711 113 89 85
392.525315 -315.541086 1171.902776 195 168 161
387.077358 -216.525122 1158.772979 115 90 104
358.389045 -94.904488 1245.067483 96 72 76
394.998307 -347.911626 1182.276653 112 92 93
395.721874 -351.516642 1180.590313 107 87 88
393.775192 -327.416170 1180.686708 157 132 127
394.884393 -290.269371 1167.384987 132 107 101
394.884393 -290.269371 1167.384987 132 107 101
395.525454 -326.887507 1182.850066 134 105 101
395.838027 -332.641499 1185.130834 112 86 80
374.967273 -141.307122 1219.406040 127 97 94
363.597487 -84.126277 1251.805278 104 80 84
363.597487 -84.126277 1251.805278 104 80 84
419.528447 -15.543822 966.074287 88 70 71
402.338407 -304.879723 1184.176060 158 129 124
402.364398 -243.663431 1174.660904 173 144 134
406.952326 -344.015733 1202.797121 69 48 47
406.952326 -344.015733 1202.797121 69 48 47
407.917332 -244.028569 1178.220383 92 63 56
412.018258 -313.576400 1199.120874 75 55 53
412.349521 -270.771416 1187.651491 179 152 141
412.353854 -265.755650 1187.423179 84 57 57
417.796629 -320.349204 1199.394441 175 148 139
414.033872 -242.978819 1188.667244 168 140 130
417.491673 -300.937010 1201.133592 166 137 126
416.686525 -265.424604 1197.409135 154 130 121
425.098917 -382.998975 1207.863354 186 151 141
424.004730 -340.207317 1201.015089 39 29 22
417.668996 -256.971670 1196.829974 144 119 112
418.549425 -261.677962 1197.399386 107 82 74
424.776776 -331.311651 1203.246070 139 123 115
424.687365 -334.800057 1205.548271 41 27 26
426.806634 -344.714909 1201.250091 96 72 72
421.877092 -256.582510 1198.635870 81 57 55
421.877092 -256.582510 1198.635870 81 57 55
401.710085 -107.423014 1242.785994 120 92 91
427.120806 -331.409512 1211.888638 23 18 19
432.021201 -356.446752 1220.795856 179 144 134
434.047332 -338.788984 1212.631498 28 22 16
433.869895 -267.469378 1205.014628 59 38 39
433.610633 -239.350558 1201.675724 56 36 30
433.629380 -233.447879 1199.579843 53 33 29
437.023551 -241.476451 1202.565742 119 98 93
398.729890 121.556687 1242.907321 66 51 60
444.552992 -354.079970 1232.174433 187 152 140
438.846701 -228.407435 1203.265734 104 81 79
435.075448 -184.008579 1213.503798 37 29 30
435.075448 -184.008579 1213.503798 37 29 30
438.135443 -199.380941 1211.679735 112 88 92
438.135443 -199.380941 1211.679735 112 88 92
442.786997 -244.977469 1213.353836 182 149 140
414.668201 14.448124 1249.869103 142 112 99
417.911939 -7.843295 1245.389007 91 68 73
447.718845 -231.136469 1222.286465 171 141 134
429.729167 82.610336 1242.716028 49 35 38
427.394848 132.299450 1228.539371 40 22 19
429.055287 121.210979 1237.841430 49 35 40
439.529330 14.786887 1250.089201 139 112 99
463.845349 -215.755344 1238.488246 174 141 126
437.674310 123.803796 1236.094654 133 103 95
465.613358 -169.197158 1238.607960 68 46 56
468.534575 -170.545714 1238.311953 119 98 105
452.687596 225.664363 1081.085983 75 53 47
460.713377 -92.771589 1251.011790 103 76 79
467.354194 -147.073123 1241.992137 90 67 71
456.927333 -15.170720 1239.986963 24 22 22
443.716155 136.387905 1238.556925 42 28 31
445.276965 191.592756 1220.943270 60 43 51
448.398023 142.821896 1236.410052 92 74 70
470.857861 -111.304377 1251.057245 123 101 101
480.550218 -195.782523 1254.872316 167 136 121
474.937111 -123.370963 1250.302074 45 33 35
453.275797 136.995568 1236.996335 45 27 26
463.804625 14.610901 1250.826581 146 116 103
466.161320 -9.034073 1247.441721 115 93 89
476.994641 -86.496574 1254.933804 131 108 105
456.542071 195.677557 1213.302967 134 93 84
461.509810 130.387295 1236.413345 137 109 95
474.612511 -3.772048 1251.805321 42 31 35
463.089209 154.291117 1223.909726 88 67 83
480.472016 -72.362568 1256.502599 103 80 85
480.472016 -72.362568 1256.502599 103 80 85
476.710833 -14.458927 1247.362704 24 19 21
477.129007 -20.625513 1244.553435 47 34 37
485.293713 -102.647031 1255.753658 96 73 80
481.507635 -18.297335 1243.651094 104 88 96
467.021700 160.667724 1241.130926 47 33 42
488.350069 -87.131958 1258.127768 91 69 73
482.427988 -8.323087 1252.283205 107 86 87
482.368067 1.731218 1251.890335 122 101 101
480.316854 65.217503 1242.606600 108 87 90
493.040173 -89.386259 1259.845299 30 22 23
500.800456 -162.993044 1270.994537 181 148 135
495.884219 -72.849093 1261.739075 30 21 23
497.974304 -76.007029 1261.701119 95 75 86
557.987241 -16.269222 624.176913 58 44 50
497.565874 -56.574082 1261.900941 33 26 29
497.565874 -56.574082 1261.900941 33 26 29
507.990729 -162.983349 1287.075452 188 154 143
496.717254 24.262760 1252.774816 38 30 34
496.901395 32.888553 1250.109722 104 85 94
488.356903 175.286139 1223.987390 112 98 107
497.302860 59.815947 1256.331023 68 51 54
495.516494 98.686000 1242.852584 105 86 94
495.331807 111.257025 1238.877773 84 63 60
505.319828 -27.849563 1289.261015 67 53 60
499.304514 100.805377 1244.421082 69 48 63
494.141362 177.003055 1219.555359 92 78 100
509.378346 -26.332868 1274.272310 67 53 60
494.943086 223.041687 1154.931801 100 73 62
523.815348 14.920918 1193.412693 29 22 22
504.461109 74.263044 1248.957191 28 21 24
495.495725 205.289562 1214.329396 118 95 107
521.133809 -95.472088 1284.268168 91 66 57
508.652274 67.138440 1250.589710 93 74 91
510.021654 116.082159 1247.908690 90 53 45
519.301837 11.214018 1273.268018 73 60 69
511.921178 126.538373 1248.393345 93 51 43
520.783259 29.620656 1270.627961 196 163 148
519.100405 49.207180 1266.744850 97 72 77
514.610266 120.425153 1252.500864 255 222 208
510.590201 165.454637 1253.430762 180 149 136
511.871060 165.187677 1248.715381 180 149 136
512.701467 156.838710 1253.522371 182 153 135
515.177940 145.645319 1252.262226 106 91 93
524.308142 64.016640 1269.220275 191 161 147
522.603171 140.568256 1257.905331 190 163 145
540.742136 -28.778326 1298.628675 125 93 84
544.769105 182.232238 1256.285755 165 137 133
599.652421 -416.118254 1398.418824 102 64 71
603.298275 -401.106324 1398.023189 116 86 89
593.396728 -293.894919 1384.455661 201 170 155
593.656568 -293.180029 1382.887212 201 170 155
558.027639 111.205709 1297.359811 177 146 141
597.939473 -307.794045 1386.099669 116 87 100
552.392314 190.166702 1262.599455 120 96 81
607.425059 -367.827866 1403.940788 188 153 141
607.425059 -367.827866 1403.940788 188 153 141
609.954047 -378.823084 1406.246239 203 173 158
605.735857 -329.441161 1400.351744 214 175 161
561.511380 195.637173 1295.919087 83 72 68
631.072939 -401.052580 1430.977637 58 39 49
573.304519 192.171206 1309.246976 81 60 55
634.418092 -398.696960 1435.646039 97 77 85
634.418092 -398.696960 1435.646039 97 77 85
636.477446 -404.340141 1436.600785 59 41 48
636.238773 -394.280729 1431.779045 71 57 59
638.232570 -401.117057 1441.292435 50 34 41
601.341639 -18.750000 1362.478879 179 145 136
640.575175 -395.359578 1445.861587 50 34 37
626.473639 -243.721395 1411.336193 145 113 108
580.258487 221.683574 1305.187425 52 32 27
638.856261 -355.566875 1441.367773 27 20 21
601.395954 18.836651 1355.893991 26 19 20
596.560600 85.552102 1345.472473 110 87 98
643.973896 -385.322595 1397.769865 50 34 41
587.793657 183.498346 1326.923986 150 128 123
595.268523 121.592843 1340.458501 120 92 104
648.780313 -393.953813 1453.484918 51 36 41
648.780313 -393.953813 1453.484918 51 36 41
649.874990 -405.291785 1444.606850 115 92 106
650.390507 -396.406796 1452.217018 100 84 90
604.183741 57.684204 1358.922247 32 24 23
636.201891 -252.455777 1413.836860 25 19 22
587.111415 230.516034 1310.855998 74 51 52
652.310882 -401.659578 1451.915776 56 38 46
653.005148 -391.104751 1458.049325 96 77 86
601.399134 116.392210 1346.887725 107 84 95
617.564001 -40.687956 1377.393621 55 40 33
659.035985 -395.108252 1460.683280 93 79 84
659.153676 -388.879160 1467.840945 56 33 40
601.040391 169.178665 1343.697464 113 89 102
652.491039 -314.424842 1474.438603 71 50 53
660.569025 -399.837731 1460.624931 52 36 42
661.572901 -392.366636 1464.637562 67 52 56
594.882023 252.005174 1318.597268 114 96 86
623.172706 -11.597742 1380.368982 145 125 120
667.089088 -417.969385 1457.839152 113 94 102
606.311475 171.498873 1347.502902 92 42 41
718.532998 -610.386760 2383.077473 133 109 113
718.532998 -610.386760 2383.077473 133 109 113
664.382072 -368.960549 1469.671461 146 115 117
618.170243 68.728859 1370.460509 112 87 79
646.379605 -195.916593 1425.997809 140 106 103
624.601346 21.086936 1381.238579 69 47 64
606.900817 192.159704 1345.444948 114 52 70
656.442535 -270.206845 1455.171783 114 89 93
622.188388 49.283088 1371.292062 106 86 92
599.754722 266.769825 1320.264032 48 32 35
658.443181 -275.025752 1457.940749 72 51 61
600.722093 263.509126 1322.202798 107 90 87
673.832350 -315.093756 1763.513683 41 28 23
638.238768 -81.617864 1404.256074 74 55 46
629.898788 17.036318 1387.575200 109 93 98
674.959131 -392.797401 1476.547680 85 71 81
634.208214 -4.958811 1391.022933 30 15 23
615.450254 173.914438 1358.868920 123 99 102
641.268554 -42.812961 1405.302602 105 85 89
611.408009 232.347866 1336.673515 101 80 82
689.567118 -331.696029 1850.529813 75 66 61
651.670036 -110.194042 1436.737842 190 152 142
682.666846 -401.309466 1480.699928 91 71 88
652.791697 -108.609917 1426.740236 190 152 142
685.112352 -397.033547 1485.800363 56 38 44
614.339889 250.947487 1338.104513 53 35 30
665.831825 -208.512819 1449.552543 131 93 91
614.519932 268.588796 1335.892174 47 32 37
616.539275 264.826467 1337.992239 57 38 34
616.539275 264.826467 1337.992239 57 38 34
691.525418 -413.793299 1481.753610 86 68 80
618.607801 257.004527 1342.409381 67 49 41
691.062720 -390.637876 1493.082344 87 72 81
668.562285 -184.080163 1452.172370 185 149 140
657.141794 -84.782197 1419.191040 154 128 123
666.727294 -166.039441 1445.755606 178 143 131
686.286087 -293.365860 1513.461267 125 105 104
676.856875 -226.084007 1460.417747 141 111 105
678.217588 -243.746060 1459.159255 41 28 28
698.493841 -400.068634 1499.303071 103 82 97
671.766204 -139.582995 1446.101415 77 51 56
738.098372 -548.405198 1839.695442 254 245 239
678.485309 -169.006959 1452.658460 50 38 38
698.659787 -335.095974 1506.597610 97 77 77
663.763761 95.670046 1617.534215 102 77 67
667.725014 52.614040 1606.521718 85 71 75
677.896629 -139.500888 1454.995251 40 34 33
736.275992 -442.639012 1860.729233 133 109 113
736.275992 -442.639012 1860.729233 133 109 113
697.580342 -271.201306 1498.222603 104 84 87
697.701353 -266.592514 1497.541455 117 98 99
748.701781 -543.591369 1844.215245 255 239 222
684.919957 -156.210091 1454.030993 116 95 86
695.884023 -240.792851 1476.249175 41 28 23
709.301137 -344.487526 1517.581332 145 124 120
679.048850 -87.194602 1448.431182 99 76 83
696.557568 -231.696102 1481.597584 175 143 130
710.552678 -341.086626 1517.042336 107 85 92
662.938261 203.370307 1594.184225 93 75 79
693.080022 -175.179961 1473.156326 110 89 92
735.866148 -335.853280 1849.327417 121 99 98
663.314436 214.910445 1589.891603 114 96 93
701.416320 -227.803750 1485.751472 130 97 93
686.989511 -101.501761 1444.494714 94 77 90
704.515059 -241.353306 1483.172097 82 72 65
692.808595 -138.589910 1464.063109 90 74 82
692.808595 -138.589910 1464.063109 90 74 82
670.628654 196.645862 1603.226494 26 20 22
690.522613 -110.145603 1455.200766 30 20 25
706.101319 -230.269939 1490.358380 171 141 129
693.417456 -114.383284 1457.171159 89 74 90
696.099849 -120.225611 1465.335647 52 36 48
650.730220 271.821000 1383.174342 168 137 122
712.243807 -239.868255 1490.213507 75 66 61
677.105073 200.721980 1598.511204 104 83 81
695.018246 47.565419 1628.818837 108 93 90
731.419626 -378.807328 1543.413713 53 36 40
733.636102 -389.843193 1535.308193 51 31 39
733.636102 -389.843193 1535.308193 51 31 39
680.964280 195.331911 1606.995358 94 76 77
681.797991 202.332487 1605.380132 106 87 88
711.189090 -169.368339 1492.165213 110 87 89
1007.168313 176.456683 91.798562 82 70 70
-638.819238 -710.895094 1189.372445 35 24 17
16.491629 -376.160729 798.264094 61 39 35
19.211890 -374.352060 796.451483 57 33 34
31.264063 -338.685707 787.531564 69 63 71
37.869907 -222.081048 785.404970 125 106 109
35.668491 -340.043127 789.735957 20 14 16
37.420967 -230.962505 787.076401 119 104 110
33.938671 -336.396951 791.313188 84 74 82
37.881610 -303.481857 791.357506 69 56 62
21.859988 -425.200082 806.450706 51 34 47
98.865294 -307.600217 751.837677 69 63 71
16.845355 -386.355830 814.286178 80 59 58
42.372154 -284.975822 797.255254 16 16 17
13.461352 -373.816641 820.248019 120 103 117
27.830107 -436.713617 811.663411 99 84 98
22.042345 -430.339955 817.336182 110 97 113
44.447881 -292.207161 800.726185 141 126 134
47.005370 -301.492640 799.646938 123 109 119
15.852065 -368.818905 826.612402 115 98 111
1023.782079 190.612036 56.779546 43 28 26
154.058418 -280.530089 722.653180 69 63 71
48.638874 -252.796355 803.545114 122 104 111
48.638874 -252.796355 803.545114 122 104 111
50.833530 -337.988860 806.995688 20 16 16
53.723121 -337.431996 809.794446 71 65 65
56.440488 -278.662848 814.858947 88 75 88
1034.707622 198.643368 41.613843 34 25 24
59.533023 -336.895997 815.293177 22 19 19
60.319584 -261.012407 814.584499 59 45 50
60.319584 -261.012407 814.584499 59 45 50
62.391396 -336.035229 818.480210 71 67 68
64.305114 -335.683612 820.270556 78 71 69
69.610738 -217.368232 814.642672 52 38 41
54.269918 -360.279954 835.054827 26 14 12
68.243963 -335.460555 823.467076 23 19 18
67.628299 -282.801190 825.035373 65 49 53
69.297317 -269.417733 824.148357 50 40 41
74.352109 -215.884920 820.199259 102 88 104
69.066032 -335.330624 827.554505 74 67 72
59.743766 -359.278874 837.942214 138 112 107
75.010393 -210.782382 823.504680 113 96 122
71.356744 -334.891141 829.834149 79 73 74
60.281805 -364.100448 840.211565 62 43 45
59.869167 -368.727281 842.506719 53 36 48
75.974496 -223.340843 827.046993 112 90 107
57.451037 -408.879947 847.004248 63 41 44
76.425650 -333.932529 831.699936 27 22 23
76.980394 -244.928907 829.860508 40 25 31
61.760241 -375.907545 849.064980 148 125 135
61.760241 -375.907545 849.064980 148 125 135
80.378357 -333.283519 837.607647 96 83 85
67.554455 -426.004825 854.341925 51 32 36
-713.230281 -772.229285 1521.734672 118 96 101
83.764000 -333.477537 840.771551 28 23 25
54.181497 -368.440707 869.585544 37 23 16
-423.380757 -703.909227 1288.624711 47 27 20
86.518218 -183.037690 839.879746 18 16 17
88.492552 -283.480515 842.057858 88 71 78
89.248636 -173.228135 838.964544 118 94 104
102.454301 193.825148 819.227007 156 128 114
91.116520 -301.323594 843.697730 74 60 62
91.178832 -177.547096 841.307465 143 127 130
88.285024 -321.319841 853.560019 178 146 142
-477.710534 -653.932421 1366.041199 42 29 35
97.566530 -203.581238 854.386711 179 145 137
99.924178 -330.883053 857.875959 24 18 20
99.506424 -258.935203 857.894569 109 89 107
101.202463 -255.675981 859.563095 108 87 103
100.064508 -310.734121 868.930915 198 164 151
103.716791 -327.051516 866.955669 79 70 81
107.833879 -329.706578 866.228907 17 15 15
84.847791 -395.997493 893.270762 42 24 17
100.618805 -354.871599 880.624794 118 94 108
115.915541 -328.144492 874.298333 22 17 18
117.281298 -328.376727 878.747652 68 62 68
102.361450 -403.750356 896.186842 137 115 130
107.365302 -354.180516 890.962795 141 120 125
109.021027 -353.271211 889.807729 141 120 125
103.229267 -362.731458 896.691783 76 60 73
107.909581 -418.329289 895.383826 61 45 52
108.229044 -422.486527 898.871264 67 50 63
106.413752 -414.699681 900.823389 72 57 64
130.190676 -120.045762 880.407692 87 61 71
141.411049 170.910256 851.460586 117 95 93
206.568452 -108.588157 809.512726 110 88 105
142.456666 143.236904 857.761372 76 92 86
137.692761 -43.573808 872.536566 116 96 93
140.005557 -43.173552 872.144457 116 96 93
135.481048 -93.661760 881.170185 88 65 71
139.729612 -60.591396 882.083653 118 100 106
137.821354 -321.313246 899.577357 118 96 101
145.685345 -10.968526 880.266918 92 77 84
141.317095 -324.698448 903.455223 78 70 70
141.317095 -324.698448 903.455223 78 70 70
144.678949 8.892234 885.518642 131 110 113
142.648970 -332.787337 905.707247 85 74 79
148.594489 10.258818 883.914256 132 111 111
150.735519 30.932502 883.081899 128 107 107
150.735519 30.932502 883.081899 128 107 107
146.973993 -324.317322 908.125431 23 18 19
155.188605 -68.844554 890.461737 118 99 96
147.551367 -359.748455 921.216703 59 42 54
144.278836 -430.822752 930.907370 91 73 79
151.496132 -128.513976 908.085859 192 160 148
151.825550 -344.041803 922.664974 147 126 128
158.856888 -411.629828 928.983382 130 105 119
164.110849 28.817329 900.307642 167 133 128
167.458129 -12.635860 906.336391 173 132 122
169.350346 -12.338233 905.005631 173 132 122
170.931801 95.307571 900.134682 176 141 130
165.172314 -440.277027 944.513939 113 88 106
168.157443 -338.945027 941.234309 187 154 145
182.339514 -13.132500 906.165900 168 135 127
170.560586 -395.388609 947.702763 196 163 155
183.465079 149.030853 900.102307 121 107 102
173.679606 -432.525594 952.085027 201 166 160
173.679606 -432.525594 952.085027 201 166 160
175.155053 -386.216814 950.735485 194 163 159
175.155053 -386.216814 950.735485 194 163 159
175.195635 -337.340782 949.580863 189 155 149
176.656708 -410.967302 954.819681 119 96 111
176.656708 -410.967302 954.819681 119 96 111
178.533813 -347.094770 949.864778 108 88 107
178.876427 -368.015286 953.006149 103 87 108
185.472447 115.939464 913.191038 64 34 25
177.607769 -422.699394 960.988329 128 102 119
177.607769 -422.699394 960.988329 128 102 119
179.722058 -376.761529 955.643183 193 164 158
181.944284 -375.368259 953.782780 193 164 158
188.384442 110.084656 916.978298 152 104 100
183.791988 -419.831020 964.303447 197 165 154
185.510946 -361.354623 958.604744 192 160 155
245.016453 178.617405 909.726739 70 51 44
222.550650 3.065285 963.545833 139 108 96
222.053761 -283.409454 991.247942 169 133 122
232.114618 -292.172202 1003.600340 164 127 123
235.275178 -440.145153 1017.781986 152 117 127
237.403871 -100.458395 989.384969 162 126 116
237.403871 -100.458394 989.384969 162 126 116
245.230438 -67.242684 982.854038 98 82 81
241.619547 -128.301752 995.949056 176 143 131
242.386767 72.059185 977.251704 84 61 55
244.193195 -431.521266 1028.093375 149 114 114
244.221939 -14.555442 987.243423 117 85 73
244.349644 37.241650 981.836103 46 33 34
252.963503 -90.034973 993.747972 104 81 87
248.145641 64.850880 983.886836 181 146 141
251.423802 54.888789 988.340009 107 79 91
251.605631 91.295560 984.418911 138 112 106
253.740372 113.295098 981.359678 39 31 32
253.740372 113.295098 981.359678 39 31 32
252.086367 137.195305 981.765621 128 105 117
256.356453 37.164400 987.912664 110 89 78
257.610237 -418.002808 1040.168131 217 181 171
256.971977 27.911608 992.974057 133 105 96
259.919734 39.780711 998.460198 50 37 37
263.213898 -423.924677 1048.244402 222 183 170
260.373809 -23.581164 1007.620105 51 36 37
263.465156 -184.858023 1025.460886 142 106 96
264.708128 17.983977 1001.150680 80 60 58
264.067580 77.109257 995.205773 89 63 62
262.099086 73.808822 998.422289 137 114 116
263.350975 40.863246 1001.085809 115 94 99
263.609527 -56.055164 1014.010175 124 107 109
263.707270 63.338904 1000.757789 76 53 62
265.318840 30.973560 1002.433434 69 51 49
264.367986 -5.410880 1009.445005 135 116 128
264.751947 -5.333910 1008.680519 135 116 128
264.624622 -1.055499 1008.798106 81 60 71
263.251735 25.793700 1007.675500 138 118 121
267.167391 -48.053722 1013.529516 60 42 40
266.480299 -81.229876 1018.596850 76 55 65
265.632428 79.808289 1001.063177 141 123 119
271.895583 -375.192388 1052.198411 166 125 115
268.425820 -105.894249 1025.661735 76 55 65
268.425820 -105.894249 1025.661735 76 55 65
278.478848 -426.651405 1062.116655 164 128 128
323.100574 215.258571 915.506297 79 57 52
275.523312 -129.788571 1032.338872 87 64 70
279.653620 -171.918178 1033.375364 67 53 51
271.085775 -43.080650 1032.924648 74 65 68
283.560428 -177.743838 1040.602379 69 50 50
280.305317 -138.004875 1041.761020 57 42 49
280.305317 -138.004875 1041.761020 57 42 49
270.961004 -81.703388 1054.599068 145 117 122
289.194568 -210.396928 1051.015339 78 58 51
288.654341 -160.221243 1049.385574 126 101 114
353.115628 -90.203839 943.301548 131 106 120
306.329252 -427.815467 1059.085563 208 174 165
267.993453 126.203512 1043.532781 66 49 63
289.986290 -157.407358 1049.013740 126 101 118
